ply
format ascii 1.0
element vertex 107
property float x
property float y
property float z
property uchar red
property uchar green
property uchar blue
end_header
-1.10489380359649658 -2.27866530418395996 22.9997329711914062 236 211 199
-1.38143777847290039 -2.55640149116516113 22.8604450225830078 86 26 17
-1.29673480987548828 -2.60472798347473145 22.8754119873046875 161 65 43
-1.10835480690002441 -2.31934618949890137 22.9911956787109375 224 137 107
-1.06909823417663574 -2.19444918632507324 23.0187606811523438 227 144 109
-0.707071244716644287 -1.4979398250579834 23.4279384613037109 214 133 114
-1.0474555492401123 -2.16158843040466309 23.0352802276611328 223 130 95
-1.1561439037322998 -2.36345243453979492 22.9696006774902344 247 247 245
-1.1561439037322998 -2.36345243453979492 22.9696006774902344 247 247 245
-1.10528457164764404 -2.27798366546630859 22.9930095672607422 236 211 199
-1.11777186393737793 -2.3485715389251709 22.909149169921875 222 121 89
-1.01432991027832031 -2.24878430366516113 23.0109176635742188 224 128 99
-1.46562421321868896 -2.5645897388458252 22.8558254241943359 81 21 12
-1.56850802898406982 -2.58801937103271484 22.801727294921875 183 74 50
-1.15962183475494385 -2.26220846176147461 20.9521160125732422 240 224 216
-1.4097827672958374 -2.52848482131958008 22.8664760589599609 181 73 51
-1.12892806529998779 -2.40437602996826172 25.4001865386962891 241 235 231
-1.14198112487792969 -2.37866497039794922 23.0101833343505859 221 118 86
-0.653809726238250732 -1.63919591903686523 23.4028453826904297 246 246 235
-0.592593491077423096 -1.6484302282333374 23.4960556030273438 243 246 239
-1.12379682064056396 -2.31469583511352539 22.9720363616943359 245 242 240
-1.04715502262115479 -2.19139575958251953 23.0226955413818359 247 245 244
-1.04644930362701416 -2.19191265106201172 23.0293731689453125 247 245 244
-1.01154541969299316 -2.18845868110656738 23.0327205657958984 220 125 94
-0.631006777286529541 -1.51193952560424805 23.6218986511230469 217 120 113
-1.51164889335632324 -2.55403256416320801 22.8389759063720703 189 81 54
-1.08424079418182373 -2.21706724166870117 23.0106716156005859 224 133 100
-0.694719851016998291 -1.5592198371887207 23.4563961029052734 245 247 242
-0.601877987384796143 -1.55788064002990723 23.5228080749511719 215 115 89
-1.04134237766265869 -2.22278594970703125 23.014068603515625 237 216 201
-1.04134237766265869 -2.22278594970703125 23.014068603515625 237 216 201
-1.48435127735137939 -2.8930363655090332 22.8460121154785156 186 77 51
-1.28540420532226562 -2.49879312515258789 22.8890819549560547 220 121 90
-1.43870508670806885 -2.64588761329650879 22.8343791961669922 64 16 8
-1.81366050243377686 -2.73964977264404297 22.6143512725830078 194 86 55
-1.87819528579711914 -1.60993111133575439 22.7639560699462891 235 136 95
-1.26902496814727783 -1.57939112186431885 23.0253429412841797 235 136 96
-1.05666673183441162 -2.23531794548034668 23.0175685882568359 244 240 236
-1.05519950389862061 -2.27324676513671875 22.9913921356201172 222 126 92
-1.56842958927154541 -2.64960479736328125 22.7861194610595703 78 16 10
-0.998284637928009033 -2.23010778427124023 23.0359611511230469 233 195 180
-1.57594704627990723 -2.70053935050964355 22.8010540008544922 183 73 40
-0.620344817638397217 -1.64111244678497314 23.4072456359863281 226 135 119
-0.670555174350738525 -1.51570260524749756 23.5990142822265625 221 137 186
-0.553925633430480957 -1.63353455066680908 23.4323062896728516 215 112 124
-1.51257967948913574 -2.55116462707519531 22.8160362243652344 189 81 54
-0.449307680130004883 -1.33269357681274414 23.8279132843017578 162 60 41
-0.94600290060043335 -2.72974872589111328 22.9275398254394531 188 76 53
-0.661338508129119873 -1.58605337142944336 23.4501609802246094 225 185 184
-1.55966067314147949 -2.72992873191833496 22.8117790222167969 180 70 32
-1.50359296798706055 -2.583953857421875 22.7550621032714844 76 20 15
-1.02633452415466309 -2.14887690544128418 23.0436058044433594 235 206 192
-1.02858197689056396 -2.15316224098205566 23.0286693572998047 235 206 192
-0.680842101573944092 -1.62855744361877441 23.3894443511962891 233 158 113
-1.48766064643859863 -2.78856134414672852 22.8252525329589844 173 63 32
-1.54229903221130371 -2.77124357223510742 22.8155059814453125 184 75 49
-0.636975347995758057 -1.29282259941101074 23.8192520141601562 186 76 52
-0.831850409507751465 -2.68941140174865723 22.9671592712402344 189 78 55
-0.83455425500869751 -2.68372821807861328 22.8937187194824219 189 78 55
-1.48601388931274414 -2.89816951751708984 22.8549270629882812 187 78 52
-0.632390022277832031 -2.81575822830200195 22.3692874908447266 212 102 69
-1.16901731491088867 -2.38701796531677246 22.9450206756591797 233 198 183
-1.45294272899627686 -2.53776264190673828 22.8561534881591797 177 70 49
-0.684117913246154785 -1.63110923767089844 23.3769092559814453 233 152 110
-1.28380990028381348 -2.64312958717346191 22.8801994323730469 162 62 41
-1.470184326171875 -2.54192066192626953 22.858489990234375 180 72 50
-1.48373627662658691 -3.09231448173522949 22.8388214111328125 167 65 38
-1.3862234354019165 -2.76900696754455566 22.8393898010253906 169 66 44
-0.756338655948638916 -1.600211501121521 23.6214141845703125 226 131 96
-0.944985687732696533 -2.72615575790405273 22.9181861877441406 188 77 53
-1.05178570747375488 -2.2249913215637207 23.0415763854980469 230 185 165
-0.620128631591796875 -1.6422494649887085 23.4206314086914062 226 140 134
-1.4880979061126709 -2.55656957626342773 22.8762454986572266 184 74 51
-1.01991057395935059 -2.17072677612304688 23.0560035705566406 217 121 91
-1.08883237838745117 -2.29529047012329102 22.9833507537841797 221 118 85
-1.59074306488037109 -3.11783337593078613 22.8239002227783203 133 46 31
-1.79710423946380615 -2.1229860782623291 22.9587612152099609 233 133 91
-1.43025660514831543 -2.78850722312927246 22.8267612457275391 176 67 44
-1.32883977890014648 -2.73103809356689453 22.9184741973876953 166 64 41
-0.119222745299339294 -1.35173130035400391 23.2326641082763672 132 52 37
-0.0916949659585952759 -0.178117245435714722 7.6820220947265625 0 0 0
-1.59899270534515381 -3.12415385246276855 22.8511848449707031 139 49 34
-1.39631772041320801 -3.09367513656616211 22.8285064697265625 144 51 36
-0.607506990432739258 -2.88796043395996094 22.6826534271240234 224 113 77
-1.09936213493347168 -2.30040168762207031 23.0135440826416016 220 120 88
-1.5437781810760498 -2.57854104042053223 22.8079719543457031 176 68 48
-1.17613899707794189 -2.3692634105682373 22.9505424499511719 220 120 90
-1.35298562049865723 -2.55650210380554199 22.8649101257324219 164 65 43
-1.04720771312713623 -2.25563216209411621 23.0074367523193359 244 242 242
-1.00233709812164307 -2.21622180938720703 23.0219440460205078 222 140 110
-0.391298621892929077 -1.68274807929992676 23.2122058868408203 177 71 47
-1.72726154327392578 -1.804787278175354 22.6500816345214844 231 127 88
-1.50992870330810547 -2.57770133018493652 22.8395481109619141 164 65 46
-1.4217526912689209 -2.5380856990814209 22.8668861389160156 165 65 46
-1.02366697788238525 -2.14435434341430664 23.0639076232910156 243 238 232
-1.1401515007019043 -2.34479117393493652 22.9541702270507812 246 244 242
-1.1401515007019043 -2.34479117393493652 22.9541702270507812 246 244 242
-1.07799744606018066 -2.2648169994354248 23.0241661071777344 244 238 235
-1.72183835506439209 -1.62393844127655029 22.5106792449951172 0 0 0
-1.11258947849273682 -1.95078420639038086 23.1364536285400391 213 106 71
-1.12351107597351074 -2.31378030776977539 22.9690761566162109 245 243 241
-1.0473024845123291 -2.41087436676025391 22.8704795837402344 215 108 72
-1.01600635051727295 -2.15811729431152344 23.0464038848876953 222 122 91
-1.15446710586547852 -2.32911539077758789 22.9703140258789062 222 125 93
-0.726309597492218018 -1.59248125553131104 23.3950080871582031 235 151 112
-0.646266341209411621 -1.63418483734130859 23.4676475524902344 246 247 236
-0.312674939632415771 -1.51421356201171875 23.6699657440185547 177 71 49
