# 3D point list with one line of data per point:
#   POINT3D_ID, X, Y, Z, R, G, B, ERROR, TRACK[] as (IMAGE_ID, POINT2D_IDX)
# Number of points: 107, mean track length: 7.3084112149532707
9 -1.1048937752186514 -2.2786652772701181 22.99973302790475 236 211 199 0.31966222531964633 1242 19 1233 22 1243 25 1238 20 1240 23 1239 21 1235 27 1234 18 1246 30 1247 24
65 -1.3814377917220091 -2.5564014374974549 22.860444752813763 86 26 17 0.75670348395496523 1233 3 1243 3 1240 3
1 -1.2967348464957145 -2.6047279293573222 22.875412107347369 161 65 43 0.50567192872413835 1242 2 1233 1 1243 2 1240 2 1237 1 1234 2 1231 8 1229 0 1246 3 1247 1
67 -1.1083548437730057 -2.3193461940996181 22.991194974036151 224 137 107 0.21767448625675589 1243 6 1237 3 1239 4 1246 10 1247 5
3 -1.069098289720303 -2.1944491949857903 23.018761486458633 227 144 109 0.4412773743753402 1242 9 1233 6 1243 12 1238 7 1240 6 1237 14 1239 13 1236 6 1235 6 1231 3 1229 6 1246 11 1247 8
68 -0.70707121529682992 -1.4979398813341374 23.427938055615215 214 133 114 1.0488472353735736 1233 16 1237 7 1235 11 1234 7 1231 16
4 -1.0474555185958694 -2.1615883425149129 23.035279921034032 223 130 95 0.35791166632692067 1242 11 1233 7 1243 13 1238 8 1240 13 1237 4 1239 14 1236 15 1235 10 1234 12 1231 12 1229 8 1246 20 1247 16
6 -1.1561439620032317 -2.3634524491236926 22.969600650112209 247 247 245 0.53745236001346652 1242 15 1233 19 1243 19 1238 16 1240 20 1237 20 1239 17 1236 18 1235 23 1234 22 1231 32 1229 22 1246 27 1247 19
7 -1.1561439620032317 -2.3634524491236926 22.969600650112209 247 247 245 0.53745236001346652 1242 16 1233 18 1243 20 1238 15 1240 21 1237 19 1239 16 1236 17 1235 22 1234 21 1231 31 1229 23 1246 26 1247 18
8 -1.1052845930686002 -2.2779836656356114 22.99301007281468 236 211 199 0.39285259121905675 1242 18 1233 21 1243 24 1238 19 1240 22 1237 22 1239 20 1236 21 1235 26 1234 17 1231 21 1229 25 1246 29 1247 23
74 -1.1177718908019794 -2.3485715562213723 22.909149860074734 222 121 89 0.067593327733287509 1242 17 1239 19
10 -1.014329951813226 -2.2487843576004019 23.01091792325283 224 128 99 0.57850027083589417 1242 21 1233 29 1238 6 1240 26 1237 23 1237 31 1239 23 1236 31 1235 29 1234 27 1231 11 1231 23 1246 32 1247 26 1247 32
76 -1.4656241593505079 -2.5645896673072022 22.855826343718025 81 21 12 0.25874804083226355 1242 25 1239 27 1229 31 1246 35
12 -1.5685079754636415 -2.5880193255649973 22.801726825819472 183 74 50 0.78825026198914938 1242 24 1233 26 1243 29 1236 25 1247 37
77 -1.1596217912782523 -2.2622085143808119 20.952115097534726 240 224 216 0.086877801329300952 1238 1 1236 2
13 -1.409782785501666 -2.528484804143484 22.866475813286034 181 73 51 0.40604480974521651 1242 26 1233 33 1243 30 1238 27 1240 30 1237 34 1239 28 1236 37 1235 34 1234 30 1231 30 1229 21 1246 36
78 -1.1289280540920883 -2.404375992397175 25.400186335937015 241 235 231 0.72010870535750526 1242 6 1236 7
14 -1.1419810701664255 -2.3786649420469188 23.010184066102543 221 118 86 1.6817408501489242 1242 27 1233 20 1243 8 1238 17 1237 11 1239 2 1239 11 1236 19 1235 24 1234 3 1231 19 1229 32 1231 20 1246 9 1247 3
16 -0.65380974301887262 -1.6391959291818905 23.402845392764537 246 246 235 0.34459560921639193 1242 30 1233 30 1243 33 1238 31 1240 28 1237 33 1239 32 1236 32 1235 38 1234 28 1231 26 1229 34 1246 39 1247 34
17 -0.59259347182761046 -1.6484301954244533 23.496054930716571 243 246 239 0.91409495595930934 1242 31 1233 31 1243 32 1238 32 1240 27 1237 32 1239 33 1236 33 1235 37 1234 29 1231 27 1229 26 1246 44 1247 43
19 -1.1237968674189829 -2.3146957430745916 22.97203653902956 245 242 240 0.84158016348439835 1242 34 1233 34 1243 34 1238 30 1240 31 1237 36 1239 35 1236 29 1243 9 1235 41 1234 24 1231 34 1229 17 1229 36 1246 18 1247 38
20 -1.0471550291066887 -2.1913957101815233 23.022694991446546 247 245 244 0.33293456186957365 1242 35 1233 36 1243 36 1238 35 1240 33 1237 37 1239 36 1236 38 1235 42 1234 32 1231 36 1229 39 1246 42 1247 40
21 -1.0464492752964685 -2.1919125919475135 23.029373191937477 247 245 244 0.22408928593916291 1242 36 1233 37 1243 37 1238 36 1240 34 1247 41
22 -1.011545477192755 -2.1884587604155734 23.032720813838825 220 125 94 0.50225134735478461 1242 37 1233 38 1243 38 1238 37 1240 35 1237 38 1239 37 1236 39 1235 43 1234 33 1231 37 1229 40 1246 43 1247 42
23 -0.63100680218562299 -1.5119395040925654 23.621898297039625 217 120 113 0.83323197220106604 1242 38 1233 32 1243 39 1240 36 1231 28 1246 45 1229 28 1247 44
24 -1.5116488849929592 -2.554032664975455 22.838976408901438 189 81 54 0.51325173319931072 1242 40 1233 39 1243 40 1238 40 1240 38 1237 40 1239 39 1236 42 1234 34 1231 40 1229 41 1246 46
25 -1.0842407590827892 -2.2170671858573616 23.010672440880498 224 133 100 0.3988896512914874 1242 41 1233 40 1243 41 1238 41 1240 39 1239 40 1235 46 1234 31 1231 41 1229 38 1246 47 1247 46
26 -0.69471982867805959 -1.5592197861569903 23.456395621335169 245 247 242 0.91776579000180281 1242 42 1233 42 1243 45 1238 45 1240 44 1237 44 1239 44 1236 48 1235 48 1234 37 1246 49 1247 49
27 -0.60187795999999272 -1.5578806976920516 23.522808758364615 215 115 89 0.42780166015317134 1242 43 1233 41 1243 44 1238 42 1240 40 1240 43 1237 41 1239 42 1236 43 1235 47 1234 35 1231 38 1246 48 1247 48
28 -1.0413423944733593 -2.2227858572563659 23.014069438916898 237 216 201 0.4833521228990027 1242 44 1233 43 1243 46 1238 47 1240 45 1237 46 1239 45 1236 46 1235 50 1234 38 1231 42 1229 42 1246 50 1247 50
29 -1.0413423944733593 -2.2227858572563659 23.014069438916898 237 216 201 0.4833521228990027 1242 45 1233 44 1243 47 1238 48 1240 46 1237 47 1239 46 1236 47 1235 51 1234 39 1231 43 1229 43 1246 51 1247 51
30 -1.4843513089614022 -2.8930363691202183 22.846011235418406 186 77 51 0.93440214625206031 1242 49 1233 52 1240 53 1236 57 1235 59 1234 48 1231 49 1229 51
31 -1.2854042588332408 -2.4987931978104791 22.889082134558702 220 121 90 1.0445119652847519 1242 50 1233 50 1243 51 1238 54 1240 52 1237 52 1239 50 1236 55 1235 57 1234 46 1231 48 1229 47 1246 52 1247 53
32 -1.438705073580453 -2.6458876182934334 22.834379166255367 64 16 8 0.35644741073857206 1242 52 1233 53 1243 53 1238 57 1240 56 1237 54 1239 52 1236 59 1235 60 1234 49 1231 50 1229 52 1246 53 1247 54
33 -1.8136605524710101 -2.739649754698509 22.614351169234222 194 86 55 2.3971913874970987 1242 54 1233 57 1240 58 1238 59 1239 54 1236 63 1235 64 1234 53 1231 53 1243 55
34 -1.8781952472318761 -1.6099311668417098 22.763955769043179 235 136 95 1.0426208628449007 1242 56 1233 56 1243 56 1238 60 1240 59 1237 57 1239 55 1236 62 1235 63 1234 52 1247 57
35 -1.2690249496147563 -1.5793911628361539 23.02534346406949 235 136 96 1.0075307823140873 1242 57 1233 54 1243 57 1238 61 1240 60 1237 58 1239 56 1236 60 1235 61 1234 50 1231 51
36 -1.0566667827375833 -2.2353180013306067 23.017568328823689 244 240 236 0.14491479265128673 1233 5 1243 7 1235 5
37 -1.0551995233251719 -2.2732466485058316 22.991393057313754 222 126 92 0.60779527112505438 1233 28 1242 20 1243 26 1238 21 1240 12 1237 13 1239 22 1236 22 1235 28 1234 11 1231 22 1229 18 1246 31 1247 25
38 -1.5684295538621398 -2.649604753866952 22.786118560176298 78 16 10 1.2340508447998573 1242 0 1239 9 1234 16 1235 13 1229 14 1246 2 1247 0
39 -0.99828464995347066 -2.2301078832694636 23.035960898325563 233 195 180 0.13389743803563667 1242 8 1238 2 1235 9
40 -1.5759470959468282 -2.7005393502960513 22.80105467014171 183 73 40 0.95114840796174782 1233 12 1238 3 1240 10 1237 0 1239 8 1236 0 1235 12 1231 6 1246 0 1247 29
42 -0.62034484715255511 -1.6411124570529356 23.407244895048912 226 135 119 0.26701478763166664 1243 15 1238 9 1240 15 1237 17 1235 16 1246 22 1247 28
45 -0.67055516232466228 -1.5157026274221777 23.599014636169152 221 137 186 0.71950949537924447 1233 17 1238 12 1237 6 1239 26
46 -0.55392561285077335 -1.6335345216484807 23.43230537267214 215 112 124 0.59662932498403765 1233 15 1238 22 1240 24 1237 24 1236 23 1246 33
48 -1.5125796245523111 -2.5511647102858928 22.816035400172531 189 81 54 0.37126775468283069 1243 43 1238 44 1240 42 1237 43
49 -0.4493076755374647 -1.3326935247383578 23.827913958529628 162 60 41 0.4560972857514482 1242 47 1243 49 1238 46 1237 45 1236 45
51 -0.94600290113760477 -2.7297487634690487 22.92753968027229 188 76 53 0.61811251452682348 1233 48 1242 48 1243 50 1238 51 1240 49 1237 50 1239 49 1236 52 1235 55 1234 45
52 -0.66133853191084568 -1.5860534065475644 23.450160684631459 225 185 184 1.190468884374301 1233 51 1242 53 1243 54 1238 58 1240 57 1237 55 1239 53 1236 58 1235 58 1234 47 1231 45 1229 49 1246 54 1247 55
53 -1.5596606266102326 -2.7299286313512288 22.811778635386194 180 70 32 1.1148752167146949 1238 13 1240 0 1236 11 1234 9 1229 12
54 -1.5035929943340771 -2.583953803085504 22.755062796890265 76 20 15 0.66535384848185974 1243 0 1240 1 1246 5 1247 13
55 -1.0263345129763475 -2.1488768723017224 23.043606410503397 235 206 192 1.3449780705719003 1233 9 1240 7 1237 16 1236 8 1234 4 1246 13
56 -1.0285820051435282 -2.1531622167427922 23.028669800140655 235 206 192 0.44357314945368015 1233 8 1240 8 1237 15
57 -0.6808421190538767 -1.6285573991204283 23.389444768676185 233 158 113 0.64456341909690495 1242 22 1243 27 1240 14 1239 24 1237 25 1238 23 1236 16 1235 31 1231 14 1229 19 1246 21 1234 14 1247 27
58 -1.4876606258891265 -2.7885612260842776 22.825253167343657 173 63 32 0.7299514765448788 1238 25 1240 19 1239 7 1233 0 1236 10 1235 20 1237 18 1234 8 1231 17 1231 25 1237 28 1229 11
59 -1.5422990332143256 -2.7712435776443995 22.815505413134542 184 75 49 0.65260847807829958 1238 34 1240 29 1239 38 1236 35 1235 44 1231 29 1229 35 1247 45
60 -0.63697534591082117 -1.292822591985106 23.81925287509068 186 76 52 0.65494396927117493 1238 50 1240 48 1237 48 1239 48 1236 49
61 -0.83185040638022278 -2.6894114664939948 22.967160054122832 189 78 55 0.045701549558907636 1238 53 1240 50
62 -0.83455427140705862 -2.6837282232125879 22.893718638637079 189 78 55 0.53383272513053093 1238 52 1240 51 1237 51 1236 54
63 -1.4860138972275994 -2.8981695739620918 22.854927166511487 187 78 52 0.8182832456536413 1238 55 1240 54 1237 53 1236 56
64 -0.63238999887585978 -2.8157581736599897 22.369288129885252 212 102 69 0.9319038317274918 1238 56 1242 51 1240 55 1243 52 1237 56 1239 51 1236 61
66 -1.1690172903235638 -2.3870180383340567 22.945019947336341 233 198 183 0.2063674446063172 1242 5 1243 4 1237 2 1231 2 1247 2
69 -1.4529427885932331 -2.5377627247786214 22.856153961696666 177 70 49 0.89052364822743435 1238 4 1240 11 1237 9 1239 1 1236 14 1231 18 1229 15
75 -0.68411790970514341 -1.6311092017307125 23.376909503714163 233 152 110 0.22368824131756818 1237 26 1238 24 1239 25 1235 32 1231 15
79 -1.2838098859893965 -2.643129617623428 22.88019930680619 162 62 41 0.15429170108917764 1242 1 1236 12 1235 14
80 -1.4701843260486538 -2.5419207373572181 22.858490559563091 180 72 50 0.46239793609412533 1233 2 1236 13
82 -1.4837362691670288 -3.0923144441621853 22.83882162348548 167 65 38 0.62816808627588749 1233 24 1237 27 1238 33 1236 34 1235 33 1234 19 1231 24 1229 29
83 -1.386223450017501 -2.7690069216510267 22.839389170986671 169 66 44 0.96545578941384791 1242 32 1236 36 1234 20
84 -0.75633863923386502 -1.6002115460805453 23.621414724015644 226 131 96 0.43208784389711152 1239 41 1236 40
85 -0.94498569884704975 -2.7261556521106027 22.918185584737621 188 77 53 0.69444733802856851 1233 47 1236 53 1235 56 1234 44 1231 47
87 -1.051785738705318 -2.2249913888619006 23.041575547361603 230 185 165 0.24429866884478857 1236 4 1235 8
88 -0.62012862490384635 -1.6422494266583427 23.420631577119501 226 140 134 0.077666796035260902 1240 16 1235 17 1246 23
89 -1.48809790769952 -2.556569497431195 22.876246314974455 184 74 51 1.078811499880246 1236 1 1239 10 1235 21 1231 9 1246 6
90 -1.019910563367149 -2.1707267776165526 23.056004397047225 217 121 91 0.12690457504726843 1243 14 1235 30
91 -1.0888323611426387 -2.295290380558745 22.983351037134909 221 118 85 0.68002920051879368 1239 31 1235 35 1234 25 1231 35 1229 33 1246 37 1247 30
92 -1.5907431176790086 -3.1178334164324046 22.82389994502817 133 46 31 0.53905001245794415 1233 46 1235 52 1234 41
94 -1.797104191752972 -2.1229861490826409 22.958760505098244 233 133 91 0.92858837350470225 1233 58 1235 65 1234 54 1231 56
95 -1.4302565564083531 -2.7885072175604133 22.82676053741168 176 67 44 1.336556113796791 1238 43 1240 41 1237 42 1239 43 1236 41 1238 38 1235 45 1242 23 1233 25 1238 26 1237 29 1231 39 1229 30
97 -1.3288397627776736 -2.7310380851222682 22.918473603387362 166 64 41 1.6908254533256299 1242 39 1238 39 1240 37 1237 39 1235 39 1242 14 1233 13 1243 28 1238 14 1234 10 1229 13
98 -0.11922274429412619 -1.3517313502784698 23.23266381134961 132 52 37 1.4857652889531925 1236 50 1235 53 1242 46 1243 48 1238 49 1240 47 1239 47 1237 49 1234 40
99 -0.091694967638260932 -0.17811725155106567 7.6820222561808267 0 0 0 0.067159645474454938 1235 49 1236 44
100 -1.5989927061378133 -3.1241538485336844 22.85118496511118 139 49 34 0.66219243414449425 1233 45 1234 42 1229 46
101 -1.3963176950427363 -3.0936751046188919 22.828505629159903 144 51 36 0.82422536670644186 1233 49 1234 43 1231 46 1229 50
102 -0.60750697999864189 -2.8879604763745701 22.682652947566691 224 113 77 1.2666206314150645 1233 55 1235 62 1234 51 1231 52 1229 53
103 -1.0993621383256544 -2.3004017763573765 23.01354462795987 220 120 88 0.98683181561596645 1239 30 1236 30 1235 36 1234 26 1240 4 1239 5 1247 6
105 -1.5437782332054755 -2.5785409835702038 22.807972152652074 176 68 48 0.6172084300441556 1235 15 1231 7 1247 12
106 -1.1761390237394433 -2.369263298325063 22.950543015288677 220 120 90 0.33350078088818447 1233 4 1231 10 1229 4 1246 8
108 -1.3529855882774311 -2.5565020688353566 22.864910906652806 164 65 43 1.4279769448439632 1242 4 1231 1
109 -1.0472077197833964 -2.2556321849827379 23.007437093827566 244 242 242 0.11284409249245675 1240 5 1229 5
110 -1.0023370995873531 -2.2162217389347312 23.021943416448611 222 140 110 0.27135433598408309 1242 7 1229 7 1247 15
112 -0.39129860820376111 -1.6827481245622893 23.21220607913336 177 71 47 0.085140985985930062 1231 44 1229 48
113 -1.7272615947617465 -1.8047872539099048 22.650082575702726 231 127 88 0.54364298080921281 1231 55 1229 56
115 -1.5099287573703484 -2.5777013051771567 22.839549009702367 164 65 46 0.28140049118633792 1229 1 1246 4
116 -1.4217527467737494 -2.5380857379976525 22.86688596982869 165 65 46 0.069475025995540271 1237 10 1246 7
117 -1.0236669675418224 -2.1443542617061833 23.063907851706194 243 238 232 0.037793725584115104 1234 5 1246 12
118 -1.1401514598030189 -2.3447910548380464 22.954169498456409 246 244 242 0.045680477829709958 1243 22 1246 16 1247 21
119 -1.1401514598030189 -2.3447910548380464 22.954169498456409 246 244 242 0.045680477829709958 1243 23 1246 17 1247 22
120 -1.077997497500145 -2.2648169451451534 23.024166110833857 244 238 235 0.0363667076951446 1243 31 1246 38 1247 31
121 -1.7218383216042867 -1.6239383981229196 22.510679894368074 0 0 0 0.92618977498191912 1229 55 1231 54
122 -1.1125895188946728 -1.9507841699761295 23.136454491787944 213 106 71 1.1929299619653606 1242 55 1243 58 1246 58 1247 59
124 -1.1235110974249354 -2.3137803415042586 22.969076217014219 245 243 241 0.9377719286751014 1243 10 1229 16 1246 19 1242 33 1233 35 1243 35 1238 29 1240 32 1237 35 1239 34 1236 28 1235 40 1234 23 1231 33 1229 37 1247 14 1247 39
125 -1.0473025338254518 -2.4108743534366184 22.870479559731358 215 108 72 0.74586494729657227 1246 59 1247 60
126 -1.0160063193986548 -2.1581173385820653 23.046404405466738 222 122 91 0.028458185112740193 1233 10 1247 9
127 -1.1544671516898324 -2.3291153674459775 22.970313093611676 222 125 93 1.8152591757098377 1243 5 1239 3 1247 4 1243 21 1238 5 1237 12 1239 12 1235 25 1242 28 1233 27 1238 28 1240 25 1237 30 1239 29 1236 20 1238 18 1239 18 1237 21 1229 24 1246 15 1246 28 1247 20
128 -0.72630960286118962 -1.5924812783015367 23.395008573987958 235 151 112 2.9951743541672435 1243 17 1238 10 1242 13 1240 9 1233 11 1237 5 1239 6 1236 9 1235 18 1234 6 1246 24 1247 10 1247 11 1233 23 1238 11 1240 17 1243 16 1242 12 1239 15 1236 24 1235 19 1234 13 1246 25 1231 13
129 -0.64626632883149493 -1.6341848722445669 23.467648247232699 246 247 236 0.042888836154434958 1246 40 1247 33
130 -0.31267493429977994 -1.5142135750768497 23.6699656931631 177 71 49 0.61757170574994746 1246 34 1247 17
