ply
format ascii 1.0
element vertex 180
property float x
property float y
property float z
property uchar red
property uchar green
property uchar blue
end_header
0.267184019088745117 18.6522064208984375 27.5153942108154297 241 155 117
-23.8441371917724609 11.7131757736206055 43.8007049560546875 97 27 19
-2.13727664947509766 20.498260498046875 36.1959762573242188 238 147 106
10.2363624572753906 9.46258544921875 33.6871337890625 226 118 81
11.7863044738769531 9.06121444702148438 35.4311294555664062 185 77 52
-8.00147628784179688 9.91782855987548828 39.378509521484375 123 40 28
9.95350742340087891 9.46953678131103516 36.5236473083496094 184 72 50
-17.1130027770996094 21.7958793640136719 43.6911659240722656 234 138 101
8.83859157562255859 8.85868358612060547 36.9994621276855469 225 120 82
-13.2372665405273438 15.0245695114135742 39.2989578247070312 221 116 81
-19.0977363586425781 14.492823600769043 58.2548484802246094 165 63 39
-25.5854835510253906 19.6156692504882812 41.3748893737792969 206 99 76
6.30651235580444336 9.01490116119384766 38.9014396667480469 151 57 38
-4.42045736312866211 18.9884223937988281 42.5059700012207031 248 170 129
-13.1908960342407227 9.29500293731689453 38.6303482055664062 104 29 21
-4.48144006729125977 19.0775794982910156 42.3549919128417969 248 170 129
11.2993125915527344 8.64178276062011719 31.2299270629882812 224 112 78
-17.4908523559570312 25.6674385070800781 49.9074745178222656 251 197 161
12.3795700073242188 2.59578967094421387 38.3612518310546875 193 81 55
17.0843238830566406 5.01989030838012695 30.6226673126220703 172 69 47
-21.3089408874511719 12.3577566146850586 41.4490814208984375 196 83 57
10.1685609817504883 12.2827367782592773 32.05010986328125 235 133 95
-21.1160831451416016 15.6897068023681641 37.5120048522949219 242 150 106
-19.6776714324951172 29.4687423706054688 47.3787994384765625 242 165 122
4.82880926132202148 7.91801261901855469 35.1241531372070312 151 57 38
4.39696979522705078 -2.78783726692199707 42.3798942565917969 151 54 36
-29.3188591003417969 15.4088115692138672 44.6832847595214844 214 103 69
17.5316562652587891 -2.5537714958190918 38.0245552062988281 198 87 60
-15.0019187927246094 18.2673606872558594 41.6304817199707031 249 182 138
9.29321002960205078 10.4960365295410156 22.5866069793701172 217 108 81
9.50622177124023438 12.3795433044433594 27.5481796264648438 212 106 73
8.55943393707275391 6.47253847122192383 36.7062911987304688 145 51 35
19.2195377349853516 5.82941770553588867 30.4731636047363281 216 108 72
11.1007289886474609 17.7965049743652344 33.0550537109375 246 162 121
5.04865026473999023 10.6072196960449219 36.6461143493652344 232 133 92
-2.92367339134216309 19.0576705932617188 36.8830833435058594 238 144 105
1.5641477108001709 1.38477563858032227 3.11278009414672852 198 88 56
0.550809919834136963 1.92373907566070557 2.0504908561706543 227 127 80
1.9004288911819458 -1.43816995620727539 4.69960975646972656 116 34 23
12.4045276641845703 4.26213598251342773 34.8467445373535156 199 87 58
15.4541769027709961 7.64827585220336914 32.5008659362792969 173 67 45
12.7670106887817383 10.1200428009033203 26.1457004547119141 239 147 104
-7.99857425689697266 13.4050788879394531 24.584381103515625 250 191 153
-0.633146405220031738 24.5199451446533203 45.6121444702148438 236 143 103
-20.9796772003173828 9.60689544677734375 42.2476119995117188 55 14 8
2.79892325401306152 6.41151952743530273 35.2148818969726562 125 42 29
7.52635478973388672 8.87372779846191406 39.4418296813964844 152 57 39
0.753048121929168701 26.6187973022460938 42.9637718200683594 227 132 99
-19.8707160949707031 10.5434856414794922 40.729339599609375 100 29 21
-12.5758733749389648 11.1953105926513672 40.2651481628417969 174 71 48
-19.9601840972900391 14.8525981903076172 40.7539100646972656 153 57 37
14.553584098815918 11.8368930816650391 29.1728305816650391 218 109 81
-6.16436386108398438 7.85192298889160156 10.933903694152832 241 148 117
10.5624160766601562 9.21479320526123047 35.2959976196289062 179 73 51
-5.33108806610107422 11.9286470413208008 39.7056007385253906 210 103 69
-9.88901615142822266 14.4112720489501953 42.4047584533691406 221 115 82
13.6099109649658203 11.5637311935424805 23.3123416900634766 206 102 70
18.4869136810302734 -10.8174762725830078 22.5146675109863281 169 64 42
1.11932766437530518 2.51203131675720215 3.84529304504394531 232 137 97
-27.4859237670898438 16.5767383575439453 41.8792343139648438 219 109 76
-18.0838699340820312 16.0240345001220703 39.2519569396972656 183 76 55
7.17924308776855469 8.15117168426513672 17.2514324188232422 199 68 65
1.02606415748596191 3.79907917976379395 5.38049793243408203 237 146 114
-13.1639261245727539 11.4211502075195312 21.7409000396728516 169 70 54
-10.5836896896362305 11.4685907363891602 38.8521842956542969 222 117 80
-9.79863643646240234 9.52360153198242188 36.5256767272949219 113 37 26
-1.30115246772766113 0.708082497119903564 4.27397680282592773 42 9 6
10.31573486328125 -14.1815242767333984 46.713348388671875 108 32 21
-43.9747734069824219 21.2527828216552734 34.5235252380371094 185 81 56
-25.6862602233886719 14.7542276382446289 36.7048606872558594 209 103 70
4.82634925842285156 9.32418155670166016 38.9057197570800781 131 47 31
20.3916778564453125 8.17216873168945312 15.8354368209838867 174 73 52
-35.3664169311523438 17.6603984832763672 44.1988754272460938 170 71 49
-26.6243610382080078 16.0859451293945312 40.5475654602050781 216 108 74
-35.124725341796875 19.2864227294921875 40.3637619018554688 239 147 104
-12.264796257019043 9.15574741363525391 9.98696804046630859 222 123 96
8.67680931091308594 -12.5624628067016602 30.6182594299316406 111 34 22
13.9508419036865234 6.57912445068359375 29.4165306091308594 167 65 45
-38.8616256713867188 13.8798627853393555 45.6482124328613281 101 30 21
-55.3166580200195312 0.930940449237823486 39.4630241394042969 119 40 26
-18.2562770843505859 9.83694171905517578 5.96978759765625 125 97 77
10.4568710327148438 8.93793106079101562 22.8372631072998047 225 115 79
-38.5005912780761719 -29.7151527404785156 34.2343406677246094 76 20 13
12.1595897674560547 -1.72641801834106445 26.68072509765625 157 59 39
6.50065946578979492 14.7874565124511719 16.7616348266601562 235 135 95
15.9065895080566406 10.7882633209228516 24.6102046966552734 226 122 85
-14.9742202758789062 9.19024085998535156 11.0515661239624023 235 147 108
-14.9742202758789062 9.19024085998535156 11.0515661239624023 235 147 108
17.0462512969970703 8.18959331512451172 24.0525455474853516 235 137 95
-36.6823005676269531 32.5186958312988281 41.0887298583984375 226 135 101
-27.4866886138916016 26.4628543853759766 34.4416656494140625 239 151 109
14.6597766876220703 10.67779541015625 23.6461753845214844 202 94 66
9.21521854400634766 3.5158073902130127 26.4975700378417969 162 58 38
6.75057697296142578 6.0669407844543457 16.4439468383789062 207 92 61
5.61312007904052734 -10.1912698745727539 23.9169044494628906 103 29 19
-62.0465469360351562 22.3309497833251953 42.6583175659179688 146 55 37
10.2903451919555664 7.27821731567382812 27.7202396392822266 190 81 57
-27.8745288848876953 20.8276138305664062 37.0524139404296875 218 117 80
8.57477474212646484 8.51632785797119141 39.097686767578125 145 51 33
-15.0249557495117188 12.3584499359130859 41.8148574829101562 243 239 236
-44.6186981201171875 29.695892333984375 36.2050132751464844 232 139 105
-5.54249715805053711 1.07792437076568604 0.0915075168013572693 251 184 140
-38.9783134460449219 32.5534896850585938 69.0989608764648438 216 112 76
-29.6103096008300781 28.8615283966064453 36.8291168212890625 236 145 106
-15.9363622665405273 10.7663612365722656 43.5587348937988281 165 67 44
0.13878275454044342 2.92255854606628418 4.64158058166503906 235 144 108
-2.92336368560791016 -1.26218867301940918 -1.72460567951202393 161 63 43
-14.8835620880126953 8.54548263549804688 38.7451591491699219 76 21 14
-12.9561853408813477 0.562775194644927979 4.71377658843994141 152 55 35
-43.7495460510253906 26.6356678009033203 40.0752105712890625 246 173 133
-1.10172569751739502 0.149224087595939636 2.18107867240905762 0 0 0
-43.1493797302246094 20.2615108489990234 38.7883987426757812 178 76 52
1.8513411283493042 2.16834712028503418 4.85818195343017578 222 112 77
20.2002849578857422 8.41015815734863281 17.6307163238525391 193 88 64
-6.82245588302612305 -1.53019297122955322 9.77615547180175781 41 9 6
0.93741840124130249 5.18538188934326172 3.23228883743286133 239 147 107
-57.6549491882324219 -0.29126247763633728 37.6370658874511719 149 55 39
21.0916843414306641 3.96396899223327637 13.4960393905639648 187 82 59
-8.66305160522460938 13.1571512222290039 48.236572265625 114 36 25
3.38405203819274902 10.7450876235961914 12.1420202255249023 230 128 90
-52.8586769104003906 9.31076240539550781 28.3797035217285156 163 63 44
-11.1131086349487305 -1.47515535354614258 17.7066230773925781 41 9 6
-17.9750175476074219 9.46206951141357422 40.8626518249511719 75 21 14
-16.0460205078125 11.117375373840332 39.8119049072265625 206 98 63
-0.480091482400894165 8.25701522827148438 37.1305351257324219 146 53 37
8.17117977142333984 5.78397607803344727 8.70716476440429688 198 90 63
-0.833176493644714355 1.24432563781738281 3.7617800235748291 241 153 112
1.07206976413726807 1.56417477130889893 4.07223844528198242 238 137 97
-5.8684229850769043 0.360418796539306641 -2.15963292121887207 252 208 174
-7.45125770568847656 8.62179279327392578 31.4571170806884766 208 101 69
-2.66541337966918945 2.86397504806518555 13.2913446426391602 217 114 78
-12.7721872329711914 10.0461416244506836 13.4684886932373047 0 0 0
-32.6640625 19.0770931243896484 33.8544082641601562 233 139 99
-1.95520913600921631 -2.58468103408813477 -3.66878628730773926 203 97 66
-36.01898193359375 1.50783276557922363 22.3854732513427734 156 58 41
-7.33228349685668945 -0.477857708930969238 -1.98477756977081299 223 125 86
-61.0001411437988281 4.38007879257202148 33.8894920349121094 179 75 50
-43.0200347900390625 -29.0611305236816406 28.837310791015625 182 79 51
15.5281524658203125 10.6379814147949219 24.1383762359619141 226 122 85
16.8966464996337891 10.2909584045410156 21.9158802032470703 220 117 77
16.4164142608642578 9.33126449584960938 24.1275863647460938 198 89 62
18.8583698272705078 8.88835716247558594 26.5077533721923828 235 137 95
17.3354759216308594 3.31958961486816406 22.6413440704345703 235 131 93
14.153045654296875 10.1953582763671875 21.3237400054931641 209 102 73
3.30736446380615234 -0.196674257516860962 5.21034145355224609 206 91 56
15.0995712280273438 10.9446725845336914 24.2308712005615234 201 94 65
15.7275228500366211 10.0800666809082031 25.1574230194091797 195 95 68
14.3589763641357422 9.12771224975585938 32.9090080261230469 176 74 51
0.325453221797943115 8.17037677764892578 33.9402236938476562 175 70 49
9.29991817474365234 8.93476772308349609 34.2562217712402344 186 76 53
10.9580230712890625 10.540349006652832 23.6386051177978516 231 129 92
12.8678054809570312 -8.94795417785644531 16.9633102416992188 196 89 61
16.8545875549316406 7.56061410903930664 20.2826271057128906 227 122 82
5.27669572830200195 5.47015953063964844 7.45615530014038086 209 107 72
12.2663602828979492 11.0223541259765625 26.1413230895996094 242 163 120
3.93947625160217285 -4.66124057769775391 9.41255664825439453 170 64 44
6.06069374084472656 3.31193447113037109 6.84038543701171875 220 112 74
16.1703948974609375 10.8931741714477539 24.7347068786621094 225 119 82
3.42334342002868652 -0.360547780990600586 7.27993202209472656 180 73 50
1.85490453243255615 2.66439032554626465 4.61946678161621094 224 115 80
21.0470638275146484 3.9665069580078125 13.4698677062988281 187 81 59
17.8461723327636719 -1.36957442760467529 12.4924535751342773 229 129 90
-1.90311074256896973 -14.0932302474975586 20.3902225494384766 119 37 26
12.3355808258056641 9.5072174072265625 19.3843555450439453 193 81 69
21.4745807647705078 4.76583003997802734 11.0444278717041016 199 92 64
13.5967750549316406 12.6055803298950195 26.2218780517578125 237 141 98
18.6603336334228516 1.1113353967666626 19.42779541015625 229 123 87
16.1404552459716797 -7.05674600601196289 15.1626310348510742 229 124 87
4.10624027252197266 -2.24746513366699219 7.29234457015991211 169 68 47
2.22335171699523926 8.59621238708496094 24.4936981201171875 205 97 66
15.370488166809082 -13.4490976333618164 11.0858097076416016 244 159 114
19.7571392059326172 0.961988508701324463 13.3282060623168945 238 147 103
9.10297393798828125 11.1054649353027344 28.5276317596435547 228 123 86
9.49440956115722656 12.0401086807250977 26.2807483673095703 183 89 66
2.36157870292663574 2.84822726249694824 4.82531881332397461 199 95 65
9.19172286987304688 10.6848506927490234 22.5961017608642578 214 101 80
15.6723337173461914 8.27438831329345703 24.5999641418457031 228 125 84
14.5578804016113281 -7.34844064712524414 18.1797389984130859 233 131 94
-1.65114295482635498 -0.518465876579284668 2.72537422180175781 0 0 0
-3.26889944076538086 -1.87599730491638184 -2.67013883590698242 0 0 0
