# 3D point list with one line of data per point:
#   POINT3D_ID, X, Y, Z, R, G, B, ERROR, TRACK[] as (IMAGE_ID, POINT2D_IDX)
# Number of points: 180, mean track length: 14.816666666666666
65 0.26718401817012405 18.652206927373538 27.515393403857566 241 155 117 1.2582597906899109 33 4 41 10 32 7 34 5 35 6 39 10 38 16 46 11 45 6 42 10 43 12 47 14 48 19
1 -23.844136469637213 11.713176231121553 43.800704858862893 97 27 19 1.5154353719128122 40 1 33 0 34 2 35 1 32 1 38 2 31 9 29 5 30 4 15 0 16 0 21 1 17 0 12 1 8 1 5 0
66 -2.1372766045958813 20.498259890387487 36.19597801895479 238 147 106 1.3401374514187232 40 21 41 7 32 14 39 31 45 29 44 19 26 13
3 10.236362774824453 9.4625857285305308 33.687132131781134 226 118 81 0.85432498524677547 40 10 33 13 34 11 39 20 35 13 37 6 31 12 42 7 29 12 30 7 15 11 20 10 24 14 12 2 51 11 48 7 55 6 52 3 57 5 56 4 54 6 53 5 62 4 61 5 61 7 60 3 58 3
4 11.78630447131007 9.0612141050756723 35.431129490025157 185 77 52 1.4317021443245976 40 11 33 14 35 9 41 0 37 7 32 9 46 16 45 8 44 15 26 6 28 8 22 9 27 8 19 10 16 7 23 6 49 12 49 18 50 12 50 17 51 4 48 10 47 5 52 2 56 5 62 8 61 0 59 9 58 2
69 -8.0014763104334552 9.9178281644782693 39.378509424659349 123 40 28 1.1290523777679633 35 40 37 32 39 57 40 44 32 44 38 38 46 51 45 45 31 32 42 36 43 36 26 29 28 31 36 28 27 34 15 37 16 41 18 34 20 33 19 25 8 34 4 29 5 28 9 18 1 32 51 38 47 32
5 9.9535076196123455 9.4695365911199367 36.523647500309067 184 72 50 0.98021786758254026 40 14 33 15 34 15 39 19 33 12 35 17 37 15 32 19 46 23 45 14 31 15 42 14 44 20 43 14 26 10 28 9 29 21 36 5 30 10 22 15 27 17 25 11 15 18 16 16 18 11 20 18 19 12 21 9 24 19 17 12 23 8 11 9 12 10 10 8 13 4 14 11 49 11 49 17 38 4 50 16 51 18 48 13 47 6 55 15 52 7 57 11 56 13 54 10 53 7 62 12 61 6 60 10 59 7 58 5
6 -17.113003492253227 21.795879300638116 43.691164822705751 234 138 101 0.92463346535965474 40 15 33 18 39 27 35 14 41 20 37 18 32 16 38 22 46 27 45 26 31 16 42 18 44 24 43 22 26 18 28 10 30 12 22 13 27 14 25 13 15 13 18 13 20 16 19 15 21 11 24 17 17 10 23 12 11 8 11 12 12 12 10 7 10 9 13 5 14 12 5 6 9 4 5 11 7 12 2 8 2 13 4 5 3 11 6 5
7 8.8385918880021581 8.8586836293212148 36.999462001794242 225 120 82 0.73625239764481198 40 16 33 20 34 19 39 28 35 16 41 15 37 14 32 18 38 20 46 29 45 27 31 18 42 19 44 25 43 13 26 15 28 13 29 23 36 7 30 13 22 18 27 16 25 15 15 17 16 20 18 15 20 17 19 16 21 14 24 18 17 14 23 10 11 14 12 15 10 12 13 7 14 13 8 17 7 14 9 6 49 31 50 33 51 31 48 21 47 15 55 21 52 14 57 15 56 18 54 14 53 12 62 15 61 13 60 12 59 11 58 9 6 10
9 -13.237266419038523 15.024569707476941 39.29895641059494 221 116 81 0.95355599768018451 40 18 33 21 34 16 39 29 41 17 45 21 44 22 43 17 22 16 25 12 15 15 18 9 20 15 19 13 21 10 11 11 12 11 8 10 5 5 5 8 49 26 50 29 51 27 47 9
73 -19.097737241121617 14.492823614852826 58.254848591486507 165 63 39 1.2045432410343888 39 2 46 0 40 4 44 4 29 1 33 2
10 -25.585483635442827 19.615668319069989 41.374890596115591 206 99 76 0.78926226719076631 40 20 33 22 34 22 39 30 35 21 37 17 38 21 26 17 28 15 29 24 36 9 30 14 22 20 25 17 15 19 16 22 20 19 21 16 24 20 11 15 12 16 10 14 13 9 14 15 3 16 8 18 4 8 5 9 7 11 2 18 1 8 6 8
74 6.3065125008820253 9.0149015763601543 38.901441297361139 151 57 38 1.662728488699613 34 1 35 0 37 0 46 1 22 6 15 2 23 4 49 7 43 4 51 0
11 -4.4204573713137609 18.988423256814819 42.505970658403982 248 170 129 1.1515793050461534 40 24 33 25 34 24 39 34 39 47 35 23 41 31 37 20 32 22 38 24 46 45 45 41 37 28 35 37 31 19 42 25 44 30 43 29 26 21 28 20 29 27 36 10 36 19 30 17 30 27 22 22 22 31 27 20 25 19 15 26 16 27 18 20 18 26 15 29 16 31 20 29 19 22 21 19 24 28 17 18 23 13 23 22 11 19 11 28 12 19 10 19 13 13 13 20 14 19 8 26 9 8 7 18 7 22 2 36 5 19 4 23 50 46 51 39 47 24 4 18 6 15 3 39 49 42
75 -13.19089619098146 9.2950033828872449 38.630348065892086 104 29 21 1.2752761206404686 38 1 46 6 45 4 35 11 33 11 31 7 44 3 26 0 26 9 28 7 25 7 15 10 18 7 20 8 19 4 24 0 13 0 14 0 7 1 6 1
12 -4.4814401252014679 19.077579377936893 42.354991978904287 248 170 129 0.79836021785538436 40 25 33 26 34 25 39 35 35 24 32 21 38 25 31 20 26 22 28 21 29 28 30 18 22 23 27 21 25 20 21 20 17 19 23 14 11 20 12 20 10 20 13 14 8 27 7 19 5 20 6 11
76 11.299312349913681 8.6417829976017391 31.229926592467464 224 112 78 1.0675496908097686 34 12 46 7 39 13 40 12 45 9 42 5 29 18 18 0 50 13 48 6 55 8 57 6 56 6 62 5 60 4 59 1
13 -17.490852458396994 25.667437848587184 49.907473641025696 251 197 161 0.79850813232077678 40 26 33 23 34 23 39 37 35 25 41 22 37 21 32 23 38 27 31 21 42 20 26 19 28 17 29 29 36 11 30 15 22 21 27 19 25 18 15 16 16 11 18 14 20 20 19 18 21 17 24 22 17 15 23 9 11 13 12 13 10 10 13 6 14 16 8 16 9 5
14 12.37956997797191 2.5957897824043781 38.361250644924446 193 81 55 0.82224347775826478 40 27 33 27 39 38 35 28 41 23 37 22 32 27 38 29 46 30 42 21 28 22 27 24 49 33 50 36 51 32 48 25 47 16 57 19 60 15
15 17.084323268157902 5.0198901276960024 30.622667570881035 172 69 47 0.60126690517905612 40 28 33 28 34 27 39 39 35 29 41 24 37 23 46 31 45 30 42 22 44 27 43 24 49 34 50 37 51 33 48 26 47 17 55 25 52 16 57 20 56 20 54 20 53 17 62 22 61 19 60 19 59 19 58 15
16 -21.308941135670448 12.357756172247766 41.449082873894518 196 83 57 0.87765473385367399 40 31 33 29 34 29 39 42 35 31 41 26 37 24 32 28 38 30 46 32 31 23 26 24 28 23 29 31 36 14 30 22 22 26 27 25 25 25 15 27 16 28 18 22 20 25 21 22 24 24 17 20 23 18 11 25 12 21 10 17 14 20 9 13 7 17 1 23
17 10.168561307567462 12.282736378322877 32.050111235354095 235 133 95 0.71492621449869065 40 33 33 35 34 34 35 35 41 28 38 35 46 35 45 33 31 28 42 24 44 29 43 28 28 26 29 35 36 16 22 29 27 28 24 26 49 37 50 41 51 34 48 31 47 20 55 29 52 19 57 25 56 25 54 24 53 19 60 23 59 23 58 18
18 -21.116083741172304 15.689706851590442 37.512004644827314 242 150 106 0.55868085062767969 40 34 33 34 34 33 39 45 35 34 41 30 32 33 31 27 29 33 15 24 16 25 18 19 3 29 8 24 4 16 2 25 1 14
19 -19.677670708597219 29.468741921094889 47.378800816486951 242 165 122 1.6243310110601201 33 37 34 36 39 48 35 38 37 30 32 26 31 30 26 27 28 28 29 37 36 20 30 28 22 24 22 32 27 22 27 31 25 21 25 29 15 20 16 23 18 21 20 24 19 23 21 21 24 23 23 15 10 15 13 15 14 17 12 18 8 20 11 22 9 9 7 16
83 4.8288094178304526 7.9180128344539007 35.124151333280288 151 57 38 1.1447166284186132 39 40 40 29 41 35 46 40 45 31 31 22 44 36 28 19 29 30 30 21 22 25 25 24 23 17 2 10 50 38 4 11 48 34 55 35 52 17 57 21 56 29 62 30 61 26 60 27 59 27
84 4.3969697888029327 -2.7878371645663087 42.379892664534211 151 54 36 0.67478695334645511 38 43 39 54 40 41 41 40 46 47 45 43 42 32 44 40 43 40 49 46 50 51 51 43 48 38 47 28 55 39 52 24 57 31 56 33 54 31 53 24 62 36 61 29 60 32 59 29 58 23
21 -29.318859612613252 15.408811157906129 44.683283122148573 214 103 69 0.71482982744142853 40 38 33 43 34 41 39 51 35 41 41 36 37 33 32 37 38 39 31 34 42 23 26 30 28 33 29 39 36 21 30 29 22 34 27 35 25 31 18 35 21 27 24 30 23 27 11 32
85 17.531656810788249 -2.5537716148545857 38.024553406349305 198 87 60 0.90161172520150945 38 55 39 68 41 49 46 60 45 53 42 45 44 47 43 51 49 56 50 62 51 54 48 50 47 39 55 48 52 33 57 48 56 42 54 38 53 32 62 48 61 39 60 41 59 37 58 33
22 -15.001918681580252 18.267359761927715 41.630481304334999 249 182 138 0.50076938929174408 40 39 33 36 34 35 39 52 35 36 41 38 37 27 32 34 38 41 46 44 45 40 31 29 42 31 44 38 43 39 26 26 28 27 29 36 36 18 30 26 22 30 27 29 25 28 15 25 16 26 16 30 18 25 20 28 19 26 21 23 24 27 17 17 23 21 11 27 12 24 10 24 13 12 13 19 14 21 3 38 8 25 8 29 4 17 5 23 7 21 2 45 1 27 6 14
86 9.2932100453438586 10.496036500723511 22.586606296250583 217 108 81 1.3727689265602407 37 12 45 24 26 12 29 26 55 24 54 19 53 15
23 9.5062216441989857 12.379543530537577 27.548179500334282 212 106 73 1.201825162731101 40 40 33 45 34 43 39 46 35 43 41 39 37 35 32 39 38 42 46 46 45 42 31 35 44 39 43 30 26 33 28 35 29 42 36 23 30 32 22 36 27 38 15 30 25 33 16 32 18 27 20 30 19 27 21 24 24 32 17 22 23 29 14 23 49 43 50 47 47 25 55 36 52 21 57 27 56 30 54 28 53 21
24 8.55943373363543 6.4725384330432929 36.706293071458056 145 51 35 1.4478658767082424 40 42 33 47 34 46 39 55 35 45 41 41 37 37 32 41 38 44 46 48 45 50 33 51 34 50 31 36 31 41 42 33 44 41 43 41 43 49 26 35 28 37 29 43 36 26 30 35 22 39 27 39 25 34 25 37 15 35 16 39 18 33 20 32 19 35 21 31 24 35 17 28 23 32 13 23 10 21 14 26 9 11 49 47 50 52 51 44 47 29 62 42
25 19.219537116569345 5.8294178735372579 30.473163807492028 216 108 72 0.74058172911122022 40 43 33 41 34 39 39 56 35 46 41 42 37 38 32 42 38 45 46 49 45 44 31 31 42 34 44 42 43 42 36 27 49 48 50 53 51 45 48 39 47 30 55 40 52 25 57 32 56 34 54 32 53 25 62 37 61 31 60 33 59 30 58 25
91 11.100728912973613 17.796504678476591 33.05505450164685 246 162 121 0.65728910264966856 35 50 37 42 38 49 39 61 40 50 41 45 45 52 32 47 31 40 42 39 44 45 43 46 36 32 48 48 52 30
27 5.0486503642293004 10.60721958219964 36.646115771681522 232 133 92 0.68173187654014922 40 46 33 49 34 48 39 59 35 48 41 43 37 40 32 45 38 47 46 53 45 46 31 38 42 37 44 44 43 44 26 31 28 32 29 45 36 30 30 30 22 33 27 36 25 30 15 38 16 42 18 36 20 34 19 31 21 26 24 29 17 29 23 26 11 33 12 29 10 30 13 24 14 27 8 35 7 29 2 50 1 39 9 20 3 48 4 31 5 29 49 50 50 55 51 47 48 42 47 33 55 41 52 27 57 34 56 36 54 33 53 26 58 26 6 26
28 -2.9236732792746851 19.057670494014094 36.883084129869808 238 144 105 1.1049723155023643 40 49 33 46 34 45 39 53 35 44 41 44 37 36 46 55 45 48 42 38 43 45 26 34 28 36 36 24 30 34 22 37 27 42 15 41 16 34 21 29 24 33 23 30 13 26
94 1.5641476932755958 1.3847756209833579 3.1127800509144099 198 88 56 0.54255580940054593 32 30 34 31 31 24
30 0.55080991127886236 1.9237391070909424 2.0504908371033896 227 127 80 1.2232946936364799 40 55 33 59 34 58 39 66 35 55 41 47 37 51 32 53 38 60 31 48 42 43 36 39 30 47 22 52 27 51 15 51 16 55 18 48 19 45 24 47 17 44 12 41 3 64 4 47 5 46 9 30
95 1.9004288905411337 -1.4381699451138861 4.6996098012224481 116 34 23 0.57410846124672099 32 56 34 61 35 57 31 49 36 42
31 12.404527188079117 4.2621361618257305 34.846746395055838 199 87 58 1.0033015137363681 40 57 33 53 34 52 39 69 35 51 41 50 37 47 32 49 38 56 46 61 45 54 31 43 42 46 44 48 43 52 26 42 28 44 29 49 36 35 30 39 27 46 25 42 49 57 50 63 51 55 48 51 47 40 55 49 52 34 57 40 56 43 54 40 53 33 62 45 61 40 60 42 59 38 58 35
32 15.454176513153003 7.6482760587449752 32.50086412538716 173 67 45 0.44235492552669159 40 58 33 54 34 53 39 70 35 52 41 51 37 48 32 50 38 57 46 62 45 55 31 44 42 47 44 49 43 53 36 36 30 40 49 58 50 64 51 56 48 52 47 41 55 50 52 35 57 41 56 44 54 41 53 34 62 46 61 41 60 43 59 39 58 36
33 12.767010907692422 10.120042929727729 26.145700776186459 239 147 104 1.1925736981401849 40 59 33 55 34 54 39 71 41 52 37 45 38 51 42 41 44 51 43 55 26 44 36 37 30 42 49 60 50 66 51 58 48 54 47 37 55 51 52 37 57 44 56 45 54 42 53 35 61 46 60 48 59 44 58 38 62 51
98 -7.998574190868883 13.40507868593966 24.584381450090156 250 191 153 0.66855717446343388 45 34 46 36 42 26 44 31 43 31
34 -0.63314643448990826 24.519944894087441 45.612144321089296 236 143 103 1.4369961512714966 40 60 33 57 34 56 39 72 35 53 41 54 37 49 32 51 38 58 46 66 45 58 31 46 42 50 44 53 43 57 26 45 28 47 29 52 36 38 30 44 27 49 25 44 22 46 20 44 22 50 19 43 21 40 24 45 16 49 18 43 15 46 17 38 23 41 14 34
99 -20.979676667244625 9.6068953572237721 42.247611008538591 55 14 8 1.02121993439797 45 38 46 50 42 30 44 35 43 35 15 36 26 28 28 30 16 40 11 24 10 29
35 2.798923301972791 6.411519304444103 35.214881309055336 125 42 29 0.7014023493664322 40 61 33 60 34 59 39 74 35 56 41 56 32 54 38 61 46 65 42 51 26 46 28 48 29 53 36 40 22 48 27 50 15 47 16 50 18 44 19 40 21 38 24 42 17 40 11 42 10 40 13 32 14 35 8 45 4 43 7 39 2 59 1 47 12 39 5 42 3 60 49 64 50 70 51 62 6 32
44 7.5263550084405404 8.8737278507206074 39.441828579028524 152 57 39 1.6159748064838901 33 5 34 6 39 11 38 11 45 2 31 8 44 0 43 0 45 0 28 6 29 2 30 2 30 3 22 0 19 5 17 6 23 0 49 2 51 1
109 0.75304813645111068 26.618797428654993 42.963770732334559 227 132 99 1.4164079991132474 37 5 43 9 49 23 50 24 51 24
45 -19.870715240195914 10.543485630547103 40.729338709893852 100 29 21 0.82087605642591022 33 6 34 7 39 12 35 2 32 8 40 2 38 12 46 13 28 5 29 6 22 7 27 1 18 6 20 1 19 6 10 4
47 -12.575873390243295 11.195310460529646 40.265147180071025 174 71 48 0.54599107703133609 39 3 40 7 35 3 41 3 37 1 32 2 46 2 31 0 42 0 44 7 43 5 26 1 28 2 27 2 20 2 21 2 24 2 17 4 3 2 4 0 6 3
113 -19.960183776413 14.852597729050792 40.75390958745907 153 57 37 1.1660866437891082 38 40 45 47 43 37 32 38 33 44 34 42 35 42 46 54 36 22 11 26 3 36 4 22 5 22 7 20 2 35
49 14.553583876747776 11.836893318456514 29.172830290045162 218 109 81 1.0461989548329493 33 3 40 5 35 10 39 5 41 9 37 9 32 12 31 13 42 6 26 8 29 14 36 1 30 8 25 4 48 9 47 4 55 10 52 0 57 2 39 6 53 4 62 2 60 1 59 2
117 -6.1643640352693145 7.851922908746455 10.933903499411088 241 148 117 1.3583689731549677 31 6 32 11 26 3
53 10.562416340224997 9.2147934128110478 35.295998913152324 179 73 51 0.98299622068555759 33 8 41 4 46 15 29 11 15 9 24 8 49 9 50 6 48 5 51 10 56 2 54 3 61 4 60 2
118 -5.3310882716895538 11.928646781670862 39.705600727723642 210 103 69 0.97991356223502002 40 22 26 16 28 14 27 18 16 15 18 17 21 15 10 13 13 8 14 14 4 7 48 22
54 -9.8890159013272054 14.411272421300833 42.404759642329054 221 115 82 1.0353250489264851 33 9 41 5 37 8 32 3 38 5 45 10 31 2 42 8 44 5 43 7 30 1 25 1 20 11 19 9 49 14 50 14 51 13 48 8 47 3
55 13.609911258148836 11.56373135134803 23.312341832225723 206 102 70 0.857233796023674 33 19 34 18 35 15 41 14 37 19 32 17 46 26 45 17 42 17 43 11 36 6 49 28 50 23 51 29 48 18 47 12 55 20 52 13 57 13 56 17 53 11 61 12 62 11
58 18.486913761878174 -10.817476302748258 22.514666972411636 169 64 42 0.98260652891442635 39 67 40 56 41 55 37 44 38 54
61 1.1193276116981634 2.5120312534872333 3.8452930931358273 232 137 97 0.74076610314729197 34 62 35 58 37 53 32 57 31 50 36 43
64 -27.485923406900753 16.576738664647856 41.879233240740646 219 109 76 1.4246790783977072 37 4 39 14 40 8 32 4 41 8 31 11 26 7 30 5 28 3 27 3 25 3 20 5 24 3 24 9 23 2 14 3 3 4 6 4
104 -18.083870748208874 16.024033836075215 39.251955442810861 183 76 55 0.80510646431061494 34 8 38 6 39 15 44 10 26 2 29 13 25 9 20 6 13 1 9 1
107 7.1792431485174477 8.1511719606772051 17.251432949383581 199 68 65 2.2146876738686481 37 11 45 25 26 11 29 25 49 6 50 1 48 3 47 2 55 3 55 23 54 18 56 1 57 18 59 15
110 1.0260641172272793 3.7990792340509603 5.3804978057966739 237 146 114 0.24001424657304005 44 13 46 10 43 10 45 5
112 -13.163926223931925 11.421150637197758 21.740900117609591 169 70 54 1.1551200957702747 42 16 45 23 43 21
119 -10.583689705537974 11.468590445689646 38.852182561025877 222 117 80 1.9556296812537302 40 37 33 42 34 40 39 50 35 32 41 37 37 34 32 36 46 41 31 33 26 25 40 17 33 16 34 20 35 18 41 16 46 24 45 20 42 15 44 21 43 16 28 24 29 40 30 23 22 27 27 26 25 26 15 28 16 14 16 29 18 10 18 23 20 26 17 11 23 11 23 19 11 10 12 5 10 23 3 28 8 8 4 15 5 18 9 14 2 7 1 25 50 28 47 8 49 25
122 -9.7986368007200699 9.5236013036680234 36.525675740197428 113 37 26 1.3509297650323893 37 10 39 23 29 19 30 6 35 8 22 14 33 7 27 9 25 14 15 4 16 3 18 5 20 3 21 3 17 5 23 7 11 4 12 14 10 0 14 1 14 10 9 0
131 -1.301152504979169 0.70808248467615098 4.2739770175817693 42 9 6 0.63951172234653952 36 44 37 54 25 47
260 10.315735228198287 -14.181523903172426 46.713347561978708 108 32 21 1.2603524955716572 7 33 8 42 9 28 10 39 11 41 12 38 13 31 2 39 3 43 1 30
133 -43.974773634831401 21.252781979892355 34.523526792539506 185 81 56 1.8046868383059067 29 9 22 2 15 5 13 2
134 -25.686259278350995 14.754228062289899 36.704860310613611 209 103 70 1.3009566235934653 32 10 35 4 22 10 25 8 16 8 19 8 21 5 3 3 4 1
135 4.8263491914364121 9.3241814587271357 38.905719703560216 131 47 31 0.29653989357668448 29 15 22 12 27 6 18 8 21 4 24 13
312 20.391678536578116 8.1721688252950209 15.835436354576103 174 73 52 1.0425340181872418 48 12 49 20 50 19 51 20 52 15 53 13 54 15 55 16 56 14 62 13 57 16 61 9 60 13 61 14 59 13 58 10
136 -35.366417138001843 17.660399170931999 44.198877294323502 170 71 49 1.0040872953254558 28 25 29 32 30 24 31 26 32 31 33 32 34 32 35 33 36 15 22 28 37 25 27 27 25 27 15 23 16 24 18 24 20 23 20 27 19 21 24 25 17 16 23 20 11 18 12 22 10 18 13 17 14 18 3 19 8 22 4 12 9 15 7 15 2 17
138 -26.624361311181065 16.085944315642529 40.547566551748602 216 108 74 0.63957600191362896 26 43 28 45 29 50 22 49 30 41 31 45 27 47 25 43 15 49 16 52 18 46 20 43 19 42 21 39 24 43 17 42 23 40 12 40 10 34 13 34 14 32 3 63 8 48 4 46 5 45 9 23 7 44 2 62 1 51 6 35
142 -35.124724884734157 19.286422250460117 40.363763784235942 239 147 104 0.62368393009117873 26 32 28 34 29 41 30 31 22 35 27 37 31 39 32 46 33 50 34 49 35 49 25 32 15 39 16 43 18 37 20 36 19 32 21 28 24 31 17 30 23 28 11 34 12 30 10 31 13 25 14 28 3 37 8 36 4 32 5 30 9 19 7 30 2 44 1 34 6 20
143 -12.264795813390071 9.1557478583617939 9.9869684501337836 222 123 96 1.1715350634820081 28 18 30 16 26 20 29 22 25 22
147 8.6768094489164422 -12.562463147199553 30.618258810955972 111 34 22 1.0631421057673591 26 48 28 50 29 55 27 52 25 46
276 13.950841835321244 6.579124398473895 29.416530673815881 167 65 45 0.75064914061662036 45 18 46 28 49 30 41 11 50 32
148 -38.861624622002388 13.879862820220577 45.64821081738198 101 30 21 1.1548783852878277 22 17 25 16 16 21 18 16 19 17 21 13 10 11 3 18 4 10 5 14 7 13 2 34 6 9
149 -55.316656547919507 0.93094046945752162 39.463024763034966 119 40 26 0.63985554704497427 22 47 26 38 28 40 25 36 15 44 16 47 18 41 20 42 19 38 21 37 24 38 17 36 23 39 11 36 12 32 10 33 14 31 3 59 8 44 4 42 5 41 9 21 7 38 2 57 1 45 6 31
270 -18.256277299342198 9.8369415180349122 5.9697876422065486 125 97 77 2.3178014771140956 11 48 12 45 13 40 14 40
150 10.456871097928472 8.9379310576356481 22.837262924479575 225 115 79 0.74965668435946542 27 48 28 46 29 51 25 38
151 -38.500590202078193 -29.715151980349688 34.234339479385902 76 20 13 0.62810318250138986 22 51 26 40 27 44 28 42 25 40 29 47 20 45 19 44 21 41 24 46 23 42
152 12.159589537524965 -1.7264179980184555 26.68072438041947 157 59 39 1.2869795869302532 26 41 27 45 28 43 29 48 30 46 25 41
153 6.5006596846734546 14.787456657550644 16.761634244963375 235 135 95 0.81351596515894398 26 47 28 49 29 54 25 45
274 15.906589464673115 10.788263509176057 24.610204697334346 226 122 85 0.56303167792075925 39 26 41 19 42 12 43 19 45 15 46 19 49 22 50 20 51 23 48 16 47 10 52 11 54 11 53 8
156 -14.974220108686332 9.1902409973022792 11.051565740108783 235 147 108 0.93662932484815831 22 5 15 6 16 5 20 12
157 -14.974220108686332 9.1902409973022792 11.051565740108783 235 147 108 0.93662932484815831 22 4 15 7 16 6 20 13
278 17.046251583798469 8.189593294060856 24.052545867324309 235 137 95 0.71854975125713516 38 31 41 27 43 25 46 33 49 35 39 43 50 39 48 27 47 19 55 26 57 22 56 21 54 22 62 24 61 20 60 20 59 20 58 16
158 -36.682301326649863 32.518696640415655 41.088728875719951 226 135 101 1.2957391738799124 27 32 15 21 28 29 13 11
159 -27.486688349946164 26.462853591557543 34.441667508035501 239 151 109 2.2455266958671785 29 38 15 22 27 33 34 26 33 38 32 40 35 39 19 24 21 18 23 16 13 16 6 12
272 14.659776256895466 10.677795658802372 23.646176224144533 202 94 66 0.5374454211429166 38 18 39 21 40 13 43 8 44 16 45 11 49 15 51 14 55 13 57 9 56 9 54 9 62 9 61 8 60 8 59 4
160 9.2152184973326747 3.5158073260277893 26.497569192993005 162 58 38 1.0454240552581937 22 43 15 34 16 38 18 32 20 39 19 34 21 34 24 39 17 27 23 36
161 6.7505771776504968 6.0669407046707065 16.443946255878927 207 92 61 1.1813501135468363 22 41 15 40 16 44 18 38 20 35 19 33 21 33 24 36 17 31 23 34 14 29
162 5.6131202454595126 -10.191269800006637 23.916903910512595 103 29 19 1.6154106395074428 22 53 15 52 16 53 19 46 24 48 17 43 17 46 14 37
163 -62.046548406693873 22.330949189150889 42.658316504310569 146 55 37 1.3706645547247789 22 54 15 54 16 57 18 49 20 49 19 47 21 44 17 48 11 46 12 43 10 44 13 38 14 39 8 52 5 48 9 32 6 38 1 52
292 10.290344961026536 7.2782174251579166 27.720239310766186 190 81 57 1.3677612294325898 37 2 48 2 60 0 61 1 58 0
165 -27.874528892769273 20.827614737162776 37.052412389878292 218 117 80 1.1123724471003746 27 30 30 33 16 33 34 44 18 28 21 25 17 23 11 29 10 25 14 22 3 17 11 21 22 3 8 19 9 7 1 15
167 8.574774886425045 8.5163282548464068 39.09768643533473 145 51 33 1.4689400845449845 26 5 29 3 36 0 22 1 27 7 25 0 15 3 16 2 40 6 45 3 28 4 46 12 30 0 18 4 20 0 17 3 11 1 14 2 49 8 51 2 50 5 55 0
170 -15.02495606299815 12.358450092343524 41.814857284141354 243 239 236 0.51151828558961421 41 1 20 9 24 1
171 -44.6186968831935 29.69589176577675 36.205012982929155 232 139 105 1.5702840241063341 18 18 25 23 20 21 19 19 11 16 12 17 13 10
174 -5.5424973367681067 1.0779243929105631 0.091507518570026272 251 184 140 1.6029299188374513 18 50 20 50 19 48 21 45 17 49 23 45 10 46
177 -38.97831494249445 32.553490781475332 69.098963773290663 216 112 76 1.8280975457893416 18 2 32 5 19 1
178 -29.610309978137209 28.861528312071286 36.829116089653652 236 145 106 2.3333340274170626 25 5 33 10 19 2 23 3
183 -15.936362331423927 10.766361323515822 43.558736081681772 165 67 44 1.494802692309511 20 7 34 0 40 3 33 1 34 3 39 1 35 7 38 3 38 13 46 5 45 1 31 10 42 3 44 2 28 0 28 1 29 0 22 8 27 0 15 1 16 1 15 8 19 0 19 3 17 2 23 5 12 4 14 5 3 6 8 0 4 3 5 3 7 0 7 7 2 2 49 0 50 4 6 0
296 0.13878275224839393 2.9225585874524893 4.6415805055494106 235 144 108 0.24161718334568358 50 74 48 62 47 47 62 54 49 68 51 66
184 -2.9233636158144152 -1.2621886716891952 -1.7246056756988786 161 63 43 0.69036799006702398 19 11 21 6 17 8
185 -14.883562528758199 8.5454822868922165 38.745159764602256 76 21 14 1.1293028585666958 25 10 27 15 31 17 38 10 21 7 26 14 24 16 17 13 12 8 14 9 3 12 3 27 8 12 2 9
189 -12.956185335428431 0.56277520328741748 4.7137765437820409 152 55 35 1.3123656725510255 18 45 19 41 20 40 21 35 17 41 23 37 11 43 12 33 13 33
190 -43.749545515334155 26.635667268158237 40.075211449408862 246 173 133 0.7138357136782103 21 36 22 45 25 39 24 44 18 42 19 39 20 41 15 45 16 48 17 37 23 38 11 37 12 34 10 35 13 28 14 33 3 62 4 45 5 35 9 24 7 34 7 41 6 27 6 34
192 -1.1017256482164095 0.14922408652820679 2.181078768910131 0 0 0 0.2298451754302914 30 50 33 64 29 56
193 -43.149378947522557 20.261511631415807 38.788399060915573 178 76 52 0.66385806916549439 22 42 24 37 17 34 23 35 13 27
195 1.8513411848647003 2.1683471935117833 4.8581821200146136 222 112 77 1.5268076197684284 34 55 17 39 13 30 11 39 8 47
324 20.200285177639167 8.4101580098418793 17.630715718247625 193 88 64 0.93980290925313592 62 25 61 21 60 21 59 12 62 16
196 -6.8224558233626889 -1.530192924507048 9.7761556787514081 41 9 6 1.8716541594086298 18 51 19 49 20 51 17 50 23 46 21 46 11 50 13 41
199 0.93741840360769468 5.1853821041794914 3.2322889258972718 239 147 107 2.297825590424226 15 43 19 37 12 37 16 46 8 50 9 27 2 63 14 30
201 -57.654948955657076 -0.2912624781663522 37.637065694579363 149 55 39 0.66856900440081168 15 32 16 36 17 25 18 30 19 29 20 31 11 30 23 25 12 27 10 27 13 21 14 24 3 44 8 33 4 26 5 26 9 16 7 26 2 40 6 17
322 21.091684515389684 3.9639690707675479 13.49603970048514 187 82 59 0.79704174181303022 62 20 61 17 60 17 59 17 58 14
204 -8.6630511607058338 13.157150889010143 48.236573104734383 114 36 25 1.0195126688840395 29 20 12 9
211 3.3840521565833832 10.745088013128468 12.142020383965388 230 128 90 1.6889122717806961 11 44 20 47 21 42 23 43 14 38 13 36 7 45 8 49 6 36
215 -52.858676394416989 9.3107623202201637 28.379704005395162 163 63 44 0.5847638767040888 10 41 15 48 16 51 14 36 3 61 8 46 4 44 5 44 9 22 7 40 2 61 1 49 6 33
218 -11.113109087793042 -1.4751553497256311 17.706623625096345 41 9 6 1.1114862707411304 10 48 15 56 16 59 14 41
223 -17.975016915626249 9.462069841583741 40.862653681186096 75 21 14 1.4085554970797185 34 10 10 6 39 16 13 3 34 13 14 7 40 0 32 0 38 0 46 4 26 4 21 0 24 7 17 1 11 0 12 0 24 15 7 6
224 -16.046020680261865 11.117375057052719 39.811906022009246 206 98 63 0.8005568005939695 40 45 33 48 34 47 39 58 35 47 37 39 32 43 38 46 46 52 31 37 42 35 44 43 43 43 26 36 28 38 29 44 36 29 30 36 22 40 27 40 25 35 16 45 18 39 19 36 21 32 17 32 23 33 12 31 11 35 15 42 10 32 3 46 4 28 2 42 1 38 47 31 6 19
225 -0.48009147247429412 8.2570150554440378 37.130536762838645 146 53 37 0.83196303822259343 24 12 3 13 1 3
282 8.1711796575279934 5.7839760661324071 8.7071650209915799 198 90 63 0.96832430071039632 41 32 49 62 50 68 51 60 48 56 52 39 53 37 58 30 54 44
227 -0.83317650666929421 1.2443256773437876 3.7617799478442864 241 153 112 1.4323868898067307 12 35 3 53 4 37 9 25 7 42 6 21
228 1.0720697997988249 1.5641747162761239 4.0722386610716059 238 137 97 1.1899432754732258 12 36 3 54 4 38 5 36 9 26 7 43
235 -5.8684227950796144 0.36041880749418831 -2.1596330115921307 252 208 174 1.2038530309800377 3 66 8 54 4 49 5 50 7 49 6 40
236 -7.4512576912333834 8.6217923744961027 31.457116778303526 208 101 69 1.4322429007959134 16 4 17 7 19 7 8 2 2 5 6 6 10 1
237 -2.6654134163146428 2.8639749883587746 13.291344966482685 217 114 78 1.4337555887545135 3 15 8 9 11 5 5 7 1 7
238 -12.772186879550818 10.046141625751009 13.468488245443439 0 0 0 1.7398677010082069 12 25 15 31 23 23 4 19
241 -32.664062319356546 19.07709347075561 33.854407143499827 233 139 99 1.5519744405684732 8 13 28 16 5 10 24 21 2 12
249 -1.9552091789608952 -2.5846809832476949 -3.6687862627917696 203 97 66 0.31116989458892885 5 12 7 5 6 7
257 -36.018982038168637 1.5078328055154553 22.385473668090086 156 58 41 1.0681369961814915 9 31 15 53 17 47 7 47 16 56
259 -7.3322835217831495 -0.47785770836889585 -1.9847775404586412 223 125 86 0.23335343288475813 3 7 2 14
268 -61.000142899312415 4.3800785859492013 33.889492777845994 179 75 50 0.54727404175138117 3 45 4 27 5 27 7 27 9 17 10 28 11 31 12 28 13 22 14 25 15 33 16 37 17 26 18 31 2 41 1 31 19 30 6 18
271 -43.020034734871814 -29.06113026539531 28.837310536473353 182 79 51 0.94346243272105423 2 37 3 40 4 24 5 24 7 24 8 32 9 10 10 26 11 23 12 26 1 28
273 15.528152540541441 10.63798129618101 24.138376308491868 226 122 85 0.52650225601773881 42 11 46 20 49 21 50 21 51 22 55 11 51 16 60 7 59 5
275 16.896645968794076 10.290958517508273 21.91588034195394 220 117 77 0.58576013896421009 44 18 45 16 46 21 49 27 50 22 51 28 48 17 55 19 52 12 57 12 56 16 54 13 53 10 62 14 61 11 60 11 59 10 58 8
277 16.416414190060365 9.3312648460907468 24.127585884322372 198 89 62 0.54256961476925902 38 33 39 33 41 21 43 23 44 26 45 28 49 32 36 17 41 29 35 20 32 24 50 34 48 23 55 22 57 17 56 19 54 16 62 17 61 15 60 14 59 14 58 11
279 18.858369923385702 8.8883571513965087 26.507753491662093 235 137 95 0.37588865793293663 38 32 43 26 46 34 49 36 50 40 48 28 47 18 55 27 57 23 56 22
280 17.33547584819436 3.3195896039923993 22.641344279088433 235 131 93 0.50979409682544885 43 33 44 32 45 35 46 37 49 40 50 44 51 37 48 33 47 23 55 33 52 20 57 26 56 27 54 26 53 20 62 29 61 25 60 26 59 26 58 21
281 14.153045449814442 10.195357926232671 21.323739762974117 209 102 73 0.9349061331330385 41 53 42 49 43 56 44 52 45 57 46 64 49 61 37 46 38 53 39 64 50 67 51 59 48 55 47 42 55 52 52 38 57 45 56 46 54 43 53 36 58 39
283 3.3073645307709407 -0.19667425108998393 5.2103416875579862 206 91 56 0.82982607510334239 42 52 49 63 50 69 51 61 48 58 47 46 55 59 52 40 57 53 56 54 54 49 53 41 60 52 59 48 58 48
284 15.099571145835357 10.944672539249938 24.230870832532887 201 94 65 0.47994040555472117 38 19 49 16 50 9 51 15 55 12 57 8 56 10 54 8 60 6
285 15.727522444013452 10.080066884011291 25.157423520055218 195 95 68 0.51364584985605954 40 23 43 18 44 23 45 22 46 25 50 30 32 25 51 21 48 15 55 18 52 10
286 14.358976560449038 9.1277123276569263 32.909007192687135 176 74 51 1.4640073382338858 42 1 50 0 51 5 47 0 57 3 54 1 62 1
288 0.3254532222139756 8.1703767951978481 33.940222861717885 175 70 49 0.4989530707832866 39 24 46 18 50 15 51 17 39 17 46 14 45 7 38 17 44 14 43 6 49 10 50 10
289 9.2999186336496571 8.9347680800857443 34.256222009036215 186 76 53 0.58301514331460702 43 15 48 14 47 7 52 8 59 8 58 6
297 10.958022898085025 10.540349251297469 23.638605033944796 231 129 92 1.4379652673961099 35 5 40 9 42 9 43 2 44 12 46 8 48 4 31 14 36 3 38 7 41 6 32 13 47 1 55 4 57 10 54 4 53 3 51 6 62 3 58 1
299 12.867805259564522 -8.9479541819638069 16.963309769064523 196 89 61 1.2076093316377448 48 36 49 44 50 49 51 41 47 27 52 23 55 37 56 37 54 30 53 23 53 27 61 33 60 35 59 32 58 27 62 39
301 16.854587107556011 7.5606139892455646 20.282627060648984 227 122 82 0.98574572353891898 41 46 42 48 43 54 44 50 45 56 46 63 48 46 49 59 50 65 51 57 47 36 52 36 55 44 57 42 56 38 54 35 53 28 62 47 61 42 60 44 59 40 58 37
302 5.2766958475508998 5.4701594591693814 7.4561551114685098 209 107 72 1.175822587306927 43 59 44 55 45 61 46 67 48 59 47 44
303 12.266360348979694 11.022354274905881 26.141322196171227 242 163 120 0.51245204145020051 44 11 46 3 55 5 56 8 62 6 61 2 60 5
304 3.9394761637260727 -4.6612404191781023 9.4125565187918134 170 64 44 1.4082963296855704 48 49 49 54 50 60 51 53 55 46 52 31 57 35 56 40 54 36 53 29
305 6.060693694021662 3.3119344135076418 6.8403854590091555 220 112 74 1.4675897396456905 55 56 57 43 56 51 61 45 60 47 59 43
307 16.170395004568981 10.893174317405771 24.734706884488187 225 119 82 0.98742205495206714 41 18 43 20 47 11 54 12 36 8 37 16 39 25 35 19 32 20 34 21 53 9 62 10 61 10 58 7
309 3.4233435130202046 -0.36054777765662244 7.2799318919143587 180 73 50 1.1853016250175603 52 29 54 25 61 23 55 42
311 1.8549044866276576 2.6643903689749675 4.6194667948241221 224 115 80 0.090831928923782099 52 42 53 43 54 50
313 21.047063231490743 3.966506940877641 13.469867669985105 187 81 59 0.73518097548884809 57 14 62 19 61 16 60 16 59 16 58 13
315 17.846171615271476 -1.3695744023387133 12.492453835972613 229 129 90 0.48938357787150705 57 37 62 41 61 34 60 36 59 33 58 28
319 -1.903110770397086 -14.093230556355493 20.390223296042766 119 37 26 1.3322323585012754 53 40 54 47 55 57 56 52 62 55 57 50 58 47
321 12.335581223698481 9.5072175165484385 19.384355402722065 193 81 69 1.485957306635548 50 3 62 7 61 3
323 21.474580484747133 4.7658299427197903 11.044427568409731 199 92 64 0.85513819165019478 62 21 61 18 60 18 59 18
325 13.596774581614786 12.605580003220622 26.221878425588518 237 141 98 0.50400232555508506 62 27 61 22 60 25 59 25 58 20 55 30
326 18.660332702303052 1.1113353409723701 19.427795570612442 229 123 87 0.027944583448210495 62 28 61 24
330 16.14045537044262 -7.0567459085117594 15.162630801601685 229 124 87 1.2286577221439094 62 44 61 38 60 40 59 36
331 4.1062403930974209 -2.2474650379632726 7.2923446564051249 169 68 47 1.2294737798269151 53 30 54 46 55 55 56 49 52 32 57 47 60 45 59 41 61 43
333 2.2233516564349398 8.5962127870425284 24.493697876121693 205 97 66 0.46948643034122078 62 53 61 47 60 49 59 45
334 15.370488059308776 -13.449097627605527 11.085809636873298 244 159 114 3.112363644711063 62 56 61 50
337 19.757138417097423 0.96198851868116841 13.328205726385354 238 147 103 0.78032901958340872 62 49 61 44 60 46 59 42 58 34
338 9.102973609296038 11.105464507481869 28.527632049275315 228 123 86 0.23341436684928996 62 31 60 22 59 22 58 19
339 9.4944091233990946 12.040108259369523 26.280748191163511 183 89 66 0.92248425339945861 62 26 60 24 59 24 58 22 56 31 57 28
341 2.3615786836015316 2.8482272382519929 4.8253188697336045 199 95 65 0.57102465852539996 57 46 61 36 60 38 56 47 59 34 55 53
344 9.1917229024259601 10.68485113588013 22.596101419656616 214 101 80 1.6523818203837 53 14 62 18 58 12
345 15.672333544370902 8.2743883022827305 24.599963775713011 228 125 84 0.079305167570552421 62 23 59 21
357 14.557880436076523 -7.3484407260135072 18.179739285309925 233 131 94 1.1016874824193512 53 31 54 37 55 47 56 41 57 38 59 35 60 39 61 37 62 43 58 32
359 -1.6511429032137879 -0.51846586607419387 2.7253741649701966 0 0 0 0.10821362401952 12 6 14 8
360 -3.2688995376397978 -1.8759972462394008 -2.6701387571020643 0 0 0 0.3014196291727721 2 6 4 2 9 2 8 11
